# .PCD v0.7 - Point Cloud Data file format
VERSION 0.7
FIELDS x y z rgb
SIZE 4 4 4 4
TYPE F F F U
COUNT 1 1 1 1
WIDTH 1000
HEIGHT 1
VIEWPOINT 0 0 0 1 0 0 0
POINTS 1000
DATA ascii
-0.044971999 0.027631 0.80693299 0
-0.022273 -0.073422 0.74605203 0
-0.053219002 -0.027396001 0.82734698 0
-0.112327 -0.00036100001 0.74963599 0
-0.044964001 -0.069154002 0.72349799 0
-0.061988998 0.042801 0.777484 0
-0.068901002 -0.027215 0.701801 0
-0.047040001 0.037694 0.79294902 0
-0.044048999 -0.046124998 0.82140398 0
-0.001148 0.018567 0.77263498 0
-0.048579 -0.074853003 0.731251 0
-0.001699 -0.056813002 0.75068903 0
-0.089876004 0.0059779999 0.80931997 0
-0.098238997 -0.022212001 0.80858201 0
-0.030959999 -0.046758998 0.70938998 0
-0.031617001 -0.079456002 0.773013 0
-0.108061 0.0097810002 0.74940902 0
-0.075866997 -0.071163997 0.79350603 0
-0.086388998 0.025463 0.79487503 0
-0.052186001 -0.0027320001 0.701307 0
-0.039742 -0.064875998 0.719868 0
-0.074345 0.039043002 0.77957398 0
-0.101886 -0.057688002 0.74872899 0
0.01172 -0.016425001 0.75863302 0
-0.02789 -0.078074999 0.754233 0
0.0091589997 -0.037135001 0.76942801 0
-0.031157 -0.075691 0.78608501 0
-0.111468 0.00039999999 0.77978599 0
-0.053764001 -0.031342 0.70029497 0
-0.00032699999 -0.056467 0.75650001 0
0.011523 -0.025770999 0.76737797 0
-0.107225 0.0039340002 0.73907298 0
-0.099068001 0.022138 0.74775499 0
-0.042631 -0.080081001 0.74476302 0
-0.045522001 0.039728999 0.78824902 0
0.001357 -0.021131 0.72815001 0
-0.010185 0.023734 0.78608799 0
-0.0026839999 -0.020749999 0.72264701 0
-0.100809 -0.00636 0.723113 0
0.005111 -0.047534 0.75736898 0
-0.028899999 -0.019990001 0.703587 0
-0.041806001 0.030404 0.72399098 0
-0.011563 -0.067001 0.777596 0
-0.074441001 0.020776 0.80879498 0
-0.027088 0.030963 0.794761 0
-0.10346 -0.047345001 0.79084301 0
-0.087311998 -0.022151999 0.81749302 0
0.0053900001 0.0015510001 0.744286 0
0.00083700003 -0.031202 0.729343 0
-0.092706002 0.027285 0.74483401 0
-0.023507999 -0.076141998 0.77219301 0
-0.069573998 -0.080650002 0.77254599 0
-0.100196 0.01252 0.792584 0
-0.084354997 -0.065874003 0.79433399 0
0.0034090001 -0.000309 0.73765099 0
-0.013277 -0.044955 0.80769998 0
-0.058555 -0.083260998 0.76008397 0
-0.088431001 0.026218001 0.73569697 0
0.0041510002 -0.01706 0.794164 0
-0.114347 -0.034788001 0.75550997 0
-0.021283999 -0.035236999 0.70946401 0
-0.11461 -0.035282999 0.76747102 0
-0.036540002 0.036538001 0.73566997 0
-0.061965998 -0.00108 0.82449001 0
-0.077326998 0.012884 0.71364498 0
-0.095027998 0.001526 0.720011 0
-0.071106002 0.041315001 0.75256097 0
-0.089662001 -0.040483002 0.81150597 0
0.0042610001 -0.0045079999 0.79022902 0
-0.067718998 -0.070492998 0.799357 0
-0.10007 -0.038998 0.80198503 0
-0.055748001 -0.010646 0.82719398 0
-0.023363 0.00106 0.70978498 0
-0.086534001 -0.034646001 0.81585801 0
-0.101272 0.022476999 0.76047701 0
-0.029645 0.006821 0.70925099 0
-0.113257 -0.010385 0.74455798 0
-0.0049740002 -0.015426 0.80685002 0
0.010741 -0.02723 0.773166 0
0.001878 -0.04473 0.74006099 0
-0.01747 -0.038856 0.71310699 0
-0.050269 0.043074001 0.74772 0
-0.110441 -0.030303 0.78903002 0
-0.028356001 0.035608001 0.78698099 0
-0.042583 -0.065412998 0.80730402 0
0.011228 -0.028065 0.75930798 0
0.00026100001 -0.042849001 0.79204601 0
-0.046858002 0.0096110003 0.820746 0
-0.059344001 0.0088090003 0.82099098 0
-0.105701 0.015171 0.75285 0
-0.105504 0.0071279998 0.78848398 0
0.010713 -0.0083360001 0.75717598 0
-0.080730997 -0.052896999 0.81051099 0
-0.103073 0.0074829999 0.792786 0
-0.070432 0.016927 0.81356001 0
-0.028549001 0.017191 0.71613997 0
-0.020540999 -0.042319998 0.81446701 0
0.0089410003 0.000199 0.76435298 0
-0.091569997 -0.032802999 0.71425903 0
0.0098120002 -0.0090110004 0.77643901 0
-0.031939998 -0.078238003 0.74773097 0
-0.095849998 -0.063971996 0.747464 0
-0.087421998 -0.018015999 0.70952302 0
-0.0023169999 0.002842 0.797342 0
-0.105712 -0.030761 0.79767799 0
-0.012726 -0.064503998 0.78640002 0
-0.10154 0.016874 0.74302101 0
-0.050471 -0.023403 0.82770401 0
-0.105896 -0.015593 0.72791702 0
-0.051801998 0.044447001 0.77245301 0
-0.031861 -0.073751003 0.73603499 0
0.006056 0.0046680002 0.77584201 0
0.004584 0.010536 0.76606798 0
-0.048907001 -0.070124999 0.80281901 0
-0.017401 -0.059749 0.79929101 0
-0.092692003 -0.055817001 0.72909302 0
-0.043161999 0.044342998 0.76059401 0
-0.058253001 0.044806998 0.76393801 0
-0.043962002 -0.037447002 0.702335 0
-0.036281001 0.021034 0.81101203 0
-0.068012998 -0.041517999 0.82184899 0
-0.050237 -0.0669 0.72025102 0
-0.083896004 0.032465 0.74177998 0
-0.052434001 -0.050423998 0.70717502 0
-0.00096099998 0.016088 0.77917701 0
-0.014275 -0.052855 0.72397399 0
-0.020475 -0.011887 0.70810598 0
-0.067248002 -0.050613999 0.81772798 0
-0.108399 -0.049254 0.77388602 0
-0.106177 -0.036557 0.732656 0
-0.059041001 -0.044883002 0.82218099 0
-0.109 -0.023835 0.73321301 0
-0.051401 -0.083483003 0.768004 0
-0.020013001 0.034201 0.74823803 0
-0.086273998 -0.067895003 0.78863901 0
-0.057765 -0.079617001 0.78527099 0
-0.096520998 0.026897 0.75560898 0
-0.06639 0.010876 0.70839602 0
-0.039372999 -0.010561 0.70107901 0
-0.081827998 -0.007952 0.81960702 0
-0.07553 -0.018743999 0.82356 0
-0.011891 -0.063080996 0.73933703 0
-0.076148003 0.036394 0.78536397 0
-0.00066600001 -0.0045659998 0.72814798 0
-0.026637999 -0.011978 0.704974 0
-0.051396001 -0.073357001 0.79839998 0
-0.093075998 -0.025792999 0.81295103 0
-0.016837001 0.020308999 0.79970199 0
-0.077326 -0.060961999 0.72126698 0
-0.058384001 -0.020811999 0.69943899 0
-0.0032259999 -0.058274999 0.77781397 0
-0.026943 -0.069853 0.79412502 0
-0.105505 -0.053157002 0.750296 0
-0.014863 -0.043281998 0.71704799 0
-0.019633001 0.016584 0.80572301 0
-0.089561999 -0.056501999 0.80059701 0
-0.083508 0.018031999 0.72129297 0
-0.100326 -0.012689 0.72105998 0
0.0039260001 0.010635 0.77217799 0
-0.03224 0.038649999 0.74401802 0
-0.068378001 0.043058001 0.76312298 0
-0.102295 -0.019989001 0.72285998 0
-0.064758003 -0.019559 0.70034099 0
-0.061500002 -0.032033999 0.82592899 0
-0.068052001 -0.080385998 0.75069398 0
-0.018584 -0.066864997 0.79062599 0
-0.062972002 -0.038417 0.702968 0
-0.085272998 0.021756999 0.72639698 0
-0.045271002 -0.023902001 0.82730299 0
-0.080095001 0.0048810001 0.81633401 0
-0.0068490002 0.002228 0.72343802 0
-0.051904 -0.079305001 0.74026603 0
-0.097478002 -0.065191001 0.765131 0
0.0076230001 -0.012594 0.78576601 0
-0.020117 0.033675 0.780698 0
-0.061446998 -0.047548 0.70639098 0
-0.015537 -0.027232001 0.71134102 0
-0.015223 0.029503999 0.783005 0
-0.082204998 0.00032600001 0.709939 0
-0.069608003 -0.066134997 0.72286701 0
-0.099299997 0.0085169999 0.72930902 0
-0.082627997 -0.069739997 0.73737401 0
-0.086521998 -0.000405 0.81470102 0
-0.091348998 0.031947002 0.76383501 0
0.002477 0.0086230002 0.74472499 0
-0.017748 -0.031603001 0.81632698 0
-0.0057799998 -0.040291999 0.802598 0
-0.091017999 0.012054 0.72265702 0
-0.091027997 0.005045 0.71814001 0
-0.111397 -0.010729 0.73925698 0
-0.086480998 -0.052519999 0.72018999 0
-0.044957999 0.01301 0.70832998 0
-0.026734 -0.078132004 0.76810497 0
-0.087823004 0.027681001 0.78960401 0
-0.075474001 0.034687001 0.78989601 0
0.0041209999 -0.046562999 0.77780402 0
-0.0025259999 -0.023891 0.80393201 0
-0.082246996 -0.026774 0.82002902 0
-0.060173001 0.024543 0.71701801 0
-0.082961999 -0.045021001 0.813959 0
-0.074761003 -0.0083830003 0.70414603 0
0.001173 0.015247 0.75453103 0
-0.014475 0.02939 0.74519402 0
-0.096074998 0.025281001 0.77925801 0
-0.072391003 -0.077758998 0.74551803 0
-0.001638 0.012935 0.74052399 0
-0.074731 0.027329 0.72515601 0
-0.076194003 -0.045763999 0.81712103 0
-0.095444001 -0.037980001 0.71946102 0
-0.077293999 -0.052995998 0.714656 0
-0.079098001 -0.0061019999 0.70644599 0
-0.086135 -0.073971003 0.767187 0
-0.029741 -0.037701 0.70614302 0
-0.01509 -0.071694002 0.76558501 0
-0.079043001 -0.027431 0.70548701 0
-0.043069001 0.022342 0.71531099 0
-0.055569001 -0.058079001 0.71224397 0
-0.051755998 -0.001839 0.82545203 0
0.00052900001 0.0074319998 0.78855801 0
-0.052400999 0.040196002 0.73891997 0
-0.101051 -0.028059 0.80470997 0
-0.096159004 -0.035916999 0.80766702 0
-0.023925001 0.016383 0.808887 0
-0.095337003 -0.0064090001 0.80968201 0
-0.078942001 -0.077899002 0.761998 0
-0.061313 -0.074667998 0.73194802 0
-0.055714 0.043752 0.75094998 0
-0.015061 -0.059367001 0.729707 0
-0.097773001 -0.042130999 0.72399002 0
-0.067612 -0.057785001 0.714221 0
-0.051562998 -0.041533001 0.70311397 0
-0.043524001 -0.018062999 0.82723898 0
0.0099849999 -0.016659999 0.74787098 0
0.000612 -0.04984 0.78348601 0
-0.055603001 -0.056026999 0.81625003 0
-0.068039 -0.034520999 0.82404703 0
-0.085376002 -0.041019998 0.71268702 0
-0.116223 -0.011135 0.76213801 0
-0.080330998 -0.063874997 0.80056798 0
-0.052745 -0.067060001 0.80663103 0
-0.115264 -0.0056309998 0.76167798 0
-0.056479 0.041542001 0.78413302 0
0.0071430001 -0.038559999 0.74846101 0
-0.053732999 0.005564 0.70414698 0
-0.0092120003 -0.026129 0.810736 0
-0.023597 0.020145999 0.72157103 0
0.011307 -0.019505 0.75430501 0
-0.037349001 -0.017532 0.70094901 0
-0.031303 -0.059732001 0.71809697 0
-0.077771999 0.038883999 0.75279999 0
-0.0071279998 -0.043134 0.724455 0
-0.031943001 -0.060178999 0.80880201 0
0.0055459999 -0.021302 0.735551 0
-0.033339001 0.00084400002 0.70541602 0
-0.039999001 0.042890001 0.75242001 0
-0.017875001 -0.051860001 0.80697602 0
-0.035433002 -0.081170999 0.75849402 0
-0.077496998 -0.018550999 0.704243 0
-0.092777997 0.023259001 0.73701799 0
-0.037377 -0.00028199999 0.82313401 0
-0.074790001 -0.076398998 0.78297198 0
-0.0128 -0.0084100002 0.81306601 0
-0.010072 -0.064097002 0.744973 0
-0.078720003 -0.038194999 0.70789897 0
-0.048563998 -0.036495999 0.82540298 0
-0.063649997 0.044034 0.76099402 0
-0.064023003 -0.02001 0.82680202 0
-0.041560002 0.0078269998 0.82086098 0
-0.0075050001 -0.0070540002 0.71903098 0
-0.048315 -0.083516002 0.76293898 0
-0.050438002 0.036492001 0.73145002 0
-0.091215 -0.052758999 0.724581 0
-0.068355002 -0.048167001 0.70824403 0
-0.069762997 -0.076890998 0.78636003 0
-0.115452 -0.029375 0.75548297 0
-0.055689 -0.074322 0.796709 0
-0.010196 0.00026100001 0.80799598 0
-0.0088069998 -0.048595 0.80070102 0
-0.065381996 -0.0062549999 0.82517898 0
-0.098536 0.025475999 0.76661801 0
-0.033835001 0.04002 0.780258 0
-0.034380998 -0.020652 0.82527798 0
-0.094295003 -0.021221001 0.71468699 0
-0.107308 -0.052765001 0.76598299 0
-0.028419999 0.038392 0.74798 0
-0.025977001 -0.074428998 0.78359902 0
-0.066307001 0.015464 0.81585997 0
-0.025939001 0.001961 0.81819499 0
-0.105978 -0.046447001 0.74040598 0
-0.099105 -0.063199997 0.757837 0
-0.024806 -0.065730996 0.72851402 0
-0.0040699998 -0.044766001 0.79753298 0
-0.039174002 0.038934 0.73945999 0
-0.022417 -0.069588996 0.790214 0
-0.087369002 -0.033013999 0.71124703 0
0.006172 -0.0032820001 0.78486502 0
-0.039452001 -0.029007001 0.82579601 0
-0.066739 -0.081954002 0.76657802 0
-0.057898 0.029323 0.72167897 0
-0.020072 0.035994999 0.769961 0
-0.085390002 -0.054570001 0.80603302 0
0.00624 -0.024072999 0.78961003 0
-0.0046959999 0.021798 0.750108 0
-0.045069002 -0.049568001 0.70718402 0
-0.0089680003 0.0095459996 0.801256 0
-0.076357998 0.0093639996 0.81591803 0
-0.089051999 -0.045387 0.80951798 0
-0.070836 -0.062204 0.80777901 0
-0.061319001 0.020622 0.81320298 0
-0.108701 0.011125 0.77036798 0
-0.042231001 -0.053994 0.71026301 0
-0.028533 0.040410001 0.76043701 0
-0.0027000001 -0.0065910001 0.80238497 0
0.002048 -0.031195 0.79570001 0
-0.105226 0.012634 0.78173298 0
-0.040504001 0.017628999 0.81486797 0
-0.086297996 -0.0057660001 0.81651402 0
0.003431 -0.01726 0.73153597 0
-0.087445997 0.033741999 0.77359498 0
-0.11228 -0.029515 0.74225497 0
-0.081134997 -0.048029002 0.71360099 0
0.011035 -0.0083750002 0.76385999 0
-0.074212 -0.079697996 0.75940502 0
-0.042172998 -0.060072999 0.812231 0
-0.049805 -0.061489999 0.71497899 0
-0.112338 -0.0077399998 0.783894 0
-0.113299 -0.035119999 0.74999899 0
-0.0086129997 -0.065981999 0.75678301 0
-0.036637999 0.011665 0.81769001 0
-0.075304002 -0.005719 0.82209897 0
-0.016040999 -0.068644002 0.74388802 0
-0.050818 -0.081032 0.745408 0
-0.110292 -0.016556 0.79148102 0
-0.071107998 -0.000765 0.70477301 0
-0.027906001 -0.026017001 0.82264298 0
0.001036 -0.009575 0.72895801 0
-0.106371 -0.0085190004 0.730142 0
-0.088285998 -0.068255 0.74214202 0
-0.010861 -0.014875 0.812473 0
-0.032827001 0.023875 0.80705398 0
-0.052846 -0.048340999 0.82093197 0
-0.05198 0.044691999 0.75650299 0
-0.070644997 0.018402001 0.71462601 0
-0.056016002 0.022634 0.7148 0
0.0058929999 0.0073250001 0.75742501 0
-0.060816001 -0.056090999 0.81562698 0
-0.051309999 -0.053144 0.81822902 0
-0.055948999 -0.015664 0.82766402 0
0.00077899999 -0.019712999 0.79976398 0
-0.0090760002 0.022969 0.74158299 0
-0.114546 -0.026425 0.77862197 0
-0.101422 -0.001158 0.80105299 0
-0.074584998 -0.024201 0.70328802 0
-0.084242001 0.012769 0.71767098 0
-0.114608 -0.018305 0.779962 0
-0.031357002 -0.007425 0.82316202 0
-0.112717 -0.036168002 0.77828997 0
-0.113307 -0.0062219999 0.74733502 0
0.0079709999 -0.034051999 0.746755 0
-0.045669001 0.042025 0.74511403 0
-0.082460999 0.012529 0.81068498 0
-0.036649 -0.068333998 0.80208999 0
-0.097455002 0.019444 0.788239 0
-0.091963999 -0.063753001 0.73902202 0
-0.023220001 -0.055344 0.71888101 0
-0.064152002 -0.010032 0.70090503 0
-0.031674001 0.040601999 0.77475101 0
-0.018347001 -0.001798 0.71175998 0
-0.035640001 -0.068844996 0.72601098 0
-0.021442 -0.075395003 0.75748199 0
-0.049226999 -0.014983 0.69936401 0
-0.075814001 -0.073804997 0.78843701 0
-0.082093999 0.030725 0.73594999 0
-0.038725 -0.042955998 0.70523399 0
-0.03562 0.030544 0.80062503 0
-0.041855 -0.082365997 0.75626701 0
0.0041499999 -0.049394 0.76973301 0
-0.110619 -0.046645999 0.76156998 0
-0.001668 -0.038743 0.72899598 0
-0.115569 -0.028124001 0.77206397 0
-0.030704999 -0.049865998 0.81581903 0
-0.0082689999 0.024208 0.78092903 0
-0.006029 0.012494 0.79485202 0
-0.064489998 0.016093999 0.71111703 0
-0.100304 -0.061732002 0.770244 0
-0.073246002 -0.069853 0.79742402 0
-0.069724001 0.039179999 0.74291599 0
-0.034451999 0.010975 0.70960701 0
-0.050237998 0.042603001 0.78103697 0
-0.044780999 -0.021824 0.69964403 0
-0.062864996 -0.063165002 0.71759599 0
-0.051805999 -0.082212001 0.77701098 0
0.0095579997 -0.035174001 0.75629699 0
0.00813 -0.021681 0.74174201 0
-0.016344 0.0043139998 0.81131399 0
-0.100077 -0.056024998 0.740722 0
-0.048457 0.017429 0.71078801 0
-0.024707999 -0.039175 0.81809598 0
-0.018869 0.030253001 0.78725898 0
-0.050717 0.014137 0.81848103 0
-0.033052001 -0.051192001 0.71105897 0
-0.115579 -0.021697 0.75149202 0
0.0065919999 -0.037402 0.78180301 0
-0.104585 -0.037319001 0.79656899 0
-0.014861 -0.012707 0.71163398 0
-0.067997001 0.025892001 0.80660701 0
-0.015593 -0.024483001 0.81604999 0
-0.091968 -0.014221 0.71299899 0
-0.046505999 -0.073407002 0.79783702 0
-0.097810999 -0.043864999 0.801916 0
-0.050053999 -0.027802 0.69975001 0
0.0085140001 -0.0038950001 0.749511 0
-0.112018 -0.022793001 0.787485 0
0.0035910001 -0.038637001 0.78867698 0
-0.088990003 0.001377 0.71475703 0
-0.106513 -0.045171998 0.78681701 0
-0.103803 -0.057813 0.76740199 0
-0.094627 0.011928 0.72629499 0
-0.069615997 -0.014939 0.70164102 0
-0.024799 -0.013533 0.82136399 0
-0.010928 -0.056515001 0.73129898 0
-0.015853001 0.023393 0.79489899 0
-0.027003 -0.048707001 0.71219802 0
-0.024472 0.035619002 0.74484301 0
-0.00244 -0.059820998 0.76149601 0
-0.003696 -0.0091939997 0.72264898 0
-0.074449003 -0.057140999 0.71635401 0
-0.029701 0.028253 0.726524 0
-0.105239 -0.052111 0.78000802 0
-0.100151 -0.051964 0.73532701 0
-0.036943 -0.014434 0.82579398 0
-0.032060999 -0.043172002 0.81970298 0
-0.043086 -0.00025099999 0.70272899 0
-0.028655 0.033194002 0.73478597 0
-0.055261999 -0.01258 0.69955599 0
-0.069234997 -0.010265 0.82496399 0
-0.028204 -0.020073 0.82314098 0
-0.075011998 0.033725001 0.734855 0
-0.101505 -0.025696 0.72240102 0
-0.059999999 0.011478 0.70748401 0
-0.116671 -0.016941 0.76582998 0
-0.052225001 -0.076545998 0.73411298 0
-0.001455 0.020051001 0.76396602 0
-0.043772999 0.0079840003 0.705845 0
-0.088079996 0.030543 0.78315097 0
-0.090300001 -0.049564999 0.80579698 0
-0.073957004 0.022469001 0.71952599 0
-0.038493 -0.077836998 0.74067801 0
-0.019239999 -0.023748999 0.70851803 0
-0.065209001 -0.061917 0.80998802 0
-0.014996 0.015043 0.80306798 0
-0.060573 0.030505 0.80345702 0
-0.061737001 0.034038998 0.79830998 0
-0.08083 -0.062236 0.724913 0
-0.051263999 -0.058883999 0.81423002 0
-0.110902 0.004191 0.75054097 0
-0.086497001 -0.047433998 0.71673602 0
-0.012444 0.0092839999 0.72190797 0
-0.065526001 -0.078662001 0.74242002 0
-0.105982 0.001183 0.73431897 0
-0.097487003 -0.0093879998 0.71865898 0
-0.044154 0.036586002 0.73263597 0
-0.028806999 -0.032846 0.821832 0
-0.012807 -0.069870003 0.759426 0
-0.076090999 0.040553 0.76314402 0
-0.0070000002 -0.060800001 0.782435 0
-0.109907 -0.036850002 0.78644198 0
-0.034425002 0.017299 0.71369302 0
-0.0071789999 0.026471 0.76144099 0
-0.044142 0.027736999 0.720339 0
-0.085064001 0.035971001 0.76817101 0
-0.018293001 -0.0048019998 0.81613201 0
-0.041306999 -0.081092 0.74937701 0
0.001862 0.01293 0.77618802 0
0.001769 0.012544 0.74951398 0
-0.0047610002 -0.04496 0.72865498 0
-0.050443999 -0.046064999 0.70500898 0
-0.040633999 0.033367001 0.72840703 0
0.0088339997 -0.031571999 0.77907902 0
-0.063516997 -0.024795 0.70034999 0
-0.031886 0.034435999 0.792413 0
-0.028413 0.019948 0.80853701 0
-0.078790002 -0.040674999 0.81816798 0
-0.063358001 0.035805002 0.73208499 0
-0.023884 0.036991999 0.75075901 0
-0.038823001 -0.043033 0.82176399 0
-0.114579 -0.012706 0.77873999 0
-0.029843999 -0.00050600001 0.82078499 0
-0.090132996 -0.068092003 0.78184003 0
-0.024921 -0.075943999 0.750175 0
-0.073925003 0.002596 0.820072 0
-0.103121 -0.0097850002 0.80195999 0
-0.071667999 0.041707002 0.77063102 0
-0.085263997 -0.012348 0.81840199 0
-0.094713002 0.011554 0.80092603 0
0.0041430001 -0.045322999 0.74712998 0
-0.045910999 -0.005173 0.82596302 0
-0.063830003 0.0049680001 0.82201302 0
-0.078405999 -0.076375999 0.74912798 0
-0.11054 -0.040553998 0.74591899 0
-0.076797001 -0.024783 0.82280499 0
-0.011969 -0.021577001 0.71347302 0
-0.010214 0.019993 0.73486 0
-0.09042 -0.070542 0.771828 0
-0.104673 -0.026140001 0.80041301 0
-0.026418 -0.062045 0.723014 0
0.0040750001 -0.031837001 0.73528498 0
-0.011195 -0.038911998 0.80888999 0
-0.041636001 0.040975001 0.78338498 0
-0.051787 -0.079829998 0.78533298 0
-0.082887001 -0.072125003 0.74299198 0
-0.091265999 -0.033360999 0.812832 0
-0.063286997 -0.081803001 0.77424699 0
0.0098010004 -0.014815 0.77944797 0
-0.102844 0.020059001 0.75649202 0
-0.033566002 0.037539002 0.78714299 0
-0.107371 0.0075449999 0.783503 0
-0.112019 0.0044610002 0.75867403 0
-0.010364 0.028959 0.75655103 0
-0.100286 0.019742999 0.781546 0
-0.015939999 0.022144999 0.73038298 0
-0.041887999 -0.077965997 0.78776801 0
-0.037700001 -0.056008 0.81427801 0
-0.049904 0.029709 0.80516499 0
-0.0038729999 0.018669 0.78214699 0
-0.057365999 0.044482999 0.77065498 0
-0.03751 -0.081266001 0.77241999 0
-0.037576001 0.034526002 0.79555202 0
0.000658 -0.0055800001 0.79726899 0
-0.030903 -0.005076 0.70452303 0
-0.086232997 -0.0039559999 0.71094501 0
-0.017898001 -0.051222 0.71954203 0
-0.109226 -0.029991999 0.735255 0
-0.112958 -0.040982001 0.76543403 0
-0.035896 -0.078348003 0.78304702 0
-0.090659 0.032205999 0.75832701 0
-0.0093499999 -0.059882 0.78883398 0
-0.115572 -0.0098050004 0.75568402 0
-0.096720003 -0.061308 0.74321002 0
-0.058293998 -0.0049100001 0.82596099 0
-0.046638001 -0.049617 0.819978 0
-0.071148999 0.0057279998 0.70724499 0
-0.058899999 -0.035812002 0.70164001 0
-0.077864997 -0.077538997 0.77351499 0
-0.089611001 -0.015907999 0.81590402 0
-0.038647 0.023814 0.71772301 0
-0.028924 -0.06312 0.80437201 0
-0.088232003 0.016976999 0.72422099 0
0.011589 -0.019894 0.77044803 0
0.0026199999 0.0046919999 0.740246 0
0.011909 -0.016539 0.76355201 0
-0.040757 0.023499001 0.81015599 0
-0.0075849998 0.026588 0.768996 0
-0.075130999 -0.070309997 0.73153299 0
-0.074295998 -0.040580999 0.70685297 0
-0.026223 -0.025123 0.70499301 0
-0.001606 -0.029827001 0.80160701 0
-0.090168998 0.030683 0.74871999 0
-0.057808999 0.044587001 0.75773698 0
-0.016930999 0.033470999 0.77357602 0
-0.067524001 -0.074671 0.73441499 0
-0.063247003 0.041080002 0.78301001 0
-0.095574997 -0.061466999 0.78583199 0
0.010191 -0.023219001 0.74900901 0
-0.072153002 -0.03748 0.82199198 0
0.0058240001 -0.046728 0.76361299 0
-0.006213 -0.018235 0.71868497 0
-0.043513 -0.011986 0.82683003 0
-0.070003003 0.034318 0.79447001 0
-0.064707004 -0.046482 0.82052302 0
-0.103568 -0.057718001 0.75667399 0
-0.054074999 -0.039165001 0.82469499 0
-0.073783003 -0.079933003 0.76612198 0
-0.019455001 -0.064043 0.73103303 0
-0.017554 -0.045816001 0.81067097 0
-0.075299002 -0.048457999 0.71090299 0
-0.102247 -0.046386998 0.73312902 0
0.011717 -0.023104999 0.75929499 0
-0.101551 -0.045545001 0.79569799 0
-0.109386 0.010617 0.76396799 0
-0.113874 -0.020183001 0.74448103 0
-0.03215 -0.028685 0.70313501 0
-0.106256 0.010069 0.74401999 0
-0.021096 0.002386 0.81539899 0
-0.065146998 0.027793 0.72151101 0
-0.098061003 -0.013381 0.80847102 0
-0.080792002 0.023053 0.72421801 0
-0.0017509999 -0.025831999 0.72432601 0
-0.02018 0.026041999 0.79590702 0
-0.062738001 0.040022001 0.74074399 0
-0.088992 -0.062763996 0.733293 0
-0.074350998 0.039391998 0.74876499 0
-0.082084998 0.018897001 0.80596399 0
-0.099179 0.0095579997 0.79699302 0
0.0075619998 -0.001427 0.77862698 0
7.5999997e-05 -0.047437999 0.78793299 0
0.0089999996 -0.012295 0.74549299 0
-0.087893002 -0.025667001 0.71019697 0
-0.088964 0.011135 0.806858 0
-0.106434 -0.021127 0.72859198 0
-0.056058001 -0.031783 0.82653397 0
-0.056060001 -0.063936003 0.71729302 0
-0.022211 0.012457 0.71634603 0
-0.075342998 -0.051860001 0.81404799 0
-0.024009001 -0.039859999 0.70952702 0
-0.090240002 0.022376999 0.794716 0
-0.092932001 -0.056999002 0.79631901 0
-0.062352002 -0.073117003 0.79734898 0
-0.099324003 -0.035489 0.72254598 0
-0.054485999 0.034256 0.79915899 0
-0.108398 -0.048395 0.75090498 0
-0.074500002 -0.065494001 0.72453398 0
-0.019678 0.031975001 0.742423 0
-0.057188001 0.0021250001 0.70299703 0
-0.055190001 0.019850999 0.81452203 0
-0.103661 0.0084659997 0.73622799 0
-0.050361998 0.040167 0.788073 0
-0.082463004 0.024014 0.80042797 0
-0.0041350001 -0.058116999 0.74601901 0
0.0043449998 -0.010476 0.79258102 0
-0.091856003 0.031161999 0.76983702 0
-0.048101 -0.065686002 0.80790001 0
-0.074709997 -0.032635 0.70462799 0
-0.013007 -0.068088003 0.74902701 0
-0.064434998 -0.079167001 0.78379601 0
-0.0059179999 0.007462 0.72790903 0
-0.063680001 -0.026934 0.82640499 0
-0.053135999 0.0087000001 0.82145703 0
-0.058357 -0.051874001 0.70832199 0
-0.091840997 0.00045699999 0.81037098 0
-0.022321001 0.037548002 0.76069498 0
-0.021833999 -0.020493999 0.82013398 0
-0.097175002 -0.048220001 0.727449 0
-0.078615002 -0.011753 0.70520997 0
-0.083253004 0.030508 0.79016203 0
0.003795 -0.0067710001 0.73471802 0
-0.031633001 -0.013108 0.702896 0
-0.031477999 0.041489001 0.766864 0
-0.109712 -0.001915 0.78706902 0
-0.056355 0.03853 0.735502 0
-0.045492001 -0.072815999 0.728441 0
-0.075150996 -0.01245 0.823318 0
0.001126 0.015983 0.76934499 0
-0.061365999 -0.067276999 0.72156501 0
-0.064712003 -0.003545 0.70232397 0
-0.101344 -0.057262 0.78094298 0
-0.030282 -0.068593003 0.79846501 0
-0.026385 -0.053938001 0.81109798 0
-0.042305999 0.044169001 0.76725399 0
-0.044656999 -0.043272 0.70428097 0
-0.097029001 -0.0031010001 0.72005099 0
-0.0025609999 0.0073879999 0.79428601 0
-0.084803998 -0.074624002 0.75805199 0
-0.0097000003 -0.034866001 0.71793002 0
-0.1101 -0.047201 0.76926899 0
0.001497 -0.051162001 0.77840698 0
-0.022851 0.011301 0.81181502 0
-0.114792 -0.0044610002 0.76889801 0
-0.021155 -0.073532999 0.77846402 0
0.0088609997 -0.035967998 0.77408302 0
-0.11114 0.0040930002 0.77553099 0
-0.092440002 -0.066955999 0.74718302 0
-0.094256997 -0.067529999 0.755597 0
-0.0977 0.020819999 0.74156398 0
-0.092699997 0.018647 0.73065603 0
-0.026825 0.037048999 0.78125101 0
-0.034696002 -0.064303003 0.72104502 0
-0.062240999 -0.082162 0.75390399 0
-0.012975 -0.057971999 0.79654902 0
-0.013303 -0.051888999 0.80289102 0
0.0094010001 -0.0026670001 0.77040899 0
-0.042045001 -0.027519999 0.70051497 0
-0.022573 0.030156 0.73506802 0
-0.041152999 -0.034586001 0.825001 0
-0.048719 0.033741999 0.72721303 0
0.001835 -0.051403001 0.75046003 0
-0.0074990001 -0.063987002 0.77484602 0
-0.052790001 0.028739 0.72065598 0
-0.064259 -0.06769 0.80423099 0
-0.049497001 -0.018367 0.827793 0
0.0090539996 -0.038431998 0.76337099 0
-0.061035998 -0.058959998 0.71356601 0
-0.085081004 0.034912001 0.75181597 0
-0.114918 -0.034421999 0.76148599 0
-0.057170998 -0.027939999 0.69990498 0
-0.083375998 -0.073717996 0.77832699 0
-0.027673 0.001075 0.70767599 0
-0.049038999 -0.0077519999 0.70027202 0
-0.097057 -0.028608 0.80889899 0
0.0080150003 -0.018829999 0.785707 0
-0.036449 0.0051790001 0.820858 0
-0.046596002 0.043834001 0.77466601 0
-0.016672 -0.033418 0.71186399 0
-0.037602998 0.043138001 0.75831699 0
-0.098901004 0.024332 0.772273 0
-0.024053 -0.069783002 0.73540801 0
-0.069110997 0.010474 0.81806803 0
-0.104912 0.001661 0.79425299 0
0.0052029998 -0.039671998 0.743267 0
-0.014441 0.025730999 0.789491 0
-0.078739002 0.029727001 0.73115999 0
-0.115994 -0.012114 0.770284 0
-0.106334 -0.016108001 0.79847199 0
0.004098 0.0057219998 0.78154999 0
-0.0030380001 -0.048641 0.73443902 0
-0.089919999 -0.038630001 0.71492302 0
-0.047463998 -0.082176 0.75073397 0
-0.033333998 -0.028945001 0.82421499 0
-0.032779999 -0.042018 0.70657301 0
-0.030789001 -0.01341 0.82384503 0
-0.069078997 0.031574 0.72776401 0
-0.071044996 -0.029744999 0.82420897 0
-0.019026 -0.036557 0.81576002 0
-0.068170004 -0.081629001 0.760867 0
-0.046634998 0.034589998 0.79823899 0
-0.078965999 0.0075400001 0.71138102 0
-0.055955999 0.016439 0.71008599 0
-0.067084 -0.043448001 0.70568597 0
-0.086796001 -0.012265 0.709562 0
-0.103202 -0.001539 0.72820401 0
-0.007131 0.018850001 0.78878802 0
-0.096671 0.02736 0.76103997 0
-0.071544997 0.041859999 0.75743598 0
-0.0081559997 -0.059390001 0.73948097 0
-0.071680002 0.037526999 0.78679901 0
-0.014758 -0.070565 0.77332699 0
-0.024228999 -0.018348999 0.705639 0
-0.047044002 -0.082983002 0.771025 0
-0.028906001 0.028312 0.799905 0
0.006813 -0.043340001 0.77114302 0
-0.074142002 0.025305999 0.80450302 0
-0.114656 -0.012426 0.74870998 0
-0.003573 0.011869 0.73542601 0
-0.030293999 -0.079729997 0.76424003 0
-0.037741002 -0.073927 0.73280901 0
-0.10109 -0.061370999 0.763596 0
-0.048016999 0.023683 0.81121999 0
-0.082659997 -0.031541999 0.70804 0
-0.035982002 0.0056710001 0.70649201 0
-0.054258998 0.042151999 0.74441803 0
-0.0089929998 0.025744 0.74830198 0
-0.070680998 0.012925 0.710868 0
-0.10313 0.017258 0.74824601 0
-0.058472998 -0.077578999 0.73690599 0
-0.088512003 -0.057234999 0.72611499 0
0.009056 -0.001514 0.75640202 0
-0.018942 0.016631 0.72187001 0
-0.095968001 0.016256999 0.79481399 0
-0.096068002 -0.050730001 0.79880601 0
-0.026807001 -0.072626002 0.788854 0
-0.068025999 0.03087 0.80068499 0
-0.039367002 -0.058931001 0.71450299 0
-0.085157 -0.049224 0.81011599 0
-0.011182 -0.044611 0.72104502 0
-0.088710003 -0.026981 0.81608099 0
-0.061067998 -0.015769999 0.699826 0
-0.021197001 0.0052009998 0.71281201 0
-0.048374001 -0.077105999 0.79148799 0
-0.077279001 -0.058308002 0.80822998 0
-0.109648 -0.0067139999 0.73692602 0
-0.037604 0.040529002 0.74490798 0
-0.0045750001 -0.0033179999 0.72349298 0
-0.113515 -0.001438 0.75411803 0
-0.098715998 -0.019678 0.71881998 0
-0.020723 -0.056710999 0.80520201 0
-0.0083029997 -0.026632 0.71719497 0
-0.033808 0.033732001 0.73210102 0
-0.003513 -0.055355001 0.78476602 0
-0.067341 0.020586999 0.811764 0
-0.089055002 0.028650999 0.74113399 0
-0.080383003 -0.002014 0.81882697 0
0.0062919999 -0.015937001 0.73729002 0
-0.099078 -0.0045750001 0.805296 0
-0.0089710001 -0.04417 0.80397099 0
-0.049065001 0.001003 0.70251399 0
-0.079618998 -0.067886002 0.79574102 0
-0.031445999 0.021697 0.71851403 0
-0.085933 -0.039251 0.81467903 0
-0.053842001 -0.083256997 0.75656599 0
0.0062910002 -0.031725001 0.78682202 0
-0.012497 0.0074499999 0.80634999 0
-0.058210999 -0.051135 0.81912899 0
-0.115718 -0.022174001 0.77464497 0
-0.012228 -0.0072849998 0.71466601 0
-0.036300998 -0.049171001 0.818187 0
-0.028510001 -0.075684004 0.74372101 0
-0.0075269998 -0.0093520004 0.80856699 0
-0.00046800001 -0.038648002 0.79623401 0
-0.033976 0.016775999 0.81353098 0
-0.104158 0.018956 0.76415801 0
-0.109749 -0.045109 0.77714097 0
-0.065315999 0.043632001 0.76759398 0
-0.058765002 -0.077345997 0.79053998 0
-0.013043 -0.030227 0.813245 0
0.0029800001 -0.025487 0.73128903 0
-0.053734999 -0.070859 0.72501999 0
-0.116395 -0.026063999 0.76415497 0
0.010312 -0.029697999 0.75340402 0
-0.09014 -0.063189998 0.79161298 0
-0.081820004 0.034984 0.78170401 0
-0.056444 0.043249998 0.77817601 0
-0.057038002 -0.081311002 0.78005099 0
-0.02946 0.036242999 0.74041599 0
-0.079763003 0.038203999 0.77289999 0
-0.102289 -0.033443 0.80161601 0
-0.112799 -0.030848 0.78247702 0
-0.070168003 -0.061964002 0.71872401 0
-0.111991 -0.041852999 0.75447899 0
-0.023504 -0.0059509999 0.81944901 0
0.001994 -0.053479999 0.75960797 0
0.00132 -0.039921999 0.73466802 0
-0.101388 -0.041280001 0.72803098 0
-0.043067001 -0.015319 0.69994402 0
0.000566 -0.012673 0.799474 0
-0.0088759996 -0.066682003 0.765001 0
-0.068290003 0.037165001 0.73698902 0
-0.045664001 0.0023360001 0.82374901 0
-0.094621003 -0.020777 0.81205302 0
-0.042473 -0.069422998 0.80262297 0
-0.0043009999 0.022167001 0.77404499 0
-0.092289001 -0.069785997 0.762712 0
-0.085427001 0.006176 0.81252301 0
-0.048804998 -0.034249 0.70100802 0
-0.077762999 -0.000688 0.70735198 0
-0.01981 -0.058143999 0.72386998 0
-0.097283997 0.0051040002 0.72435701 0
-0.0027679999 0.017126 0.74469399 0
-0.105145 -0.050928 0.74456602 0
-0.075090997 -0.074198999 0.73876703 0
-0.010841 0.016276 0.79743201 0
-0.061955001 -0.011166 0.82663101 0
-0.093200997 0.024127999 0.78784299 0
-0.039367002 -0.049118999 0.70798099 0
-0.040842 0.016364999 0.711178 0
0.0035290001 0.01241 0.760279 0
-0.048911002 -0.028953999 0.827039 0
-0.029299 -0.077636003 0.777798 0
-0.024905 -0.032628 0.70685703 0
-0.106596 -0.039407998 0.79178101 0
-0.014688 -0.001309 0.81246799 0
-0.078612 0.017208001 0.71742499 0
-0.112631 -0.014761 0.78571701 0
-0.033142 -0.037452001 0.82217002 0
-0.023959 0.025651 0.72724801 0
-0.110924 -0.016788 0.73684901 0
-0.023822 -0.0070039998 0.70715398 0
-0.057128999 0.001703 0.82416201 0
-0.047114 0.043992002 0.752994 0
-0.040677 -0.082571998 0.76368701 0
-0.070095003 -0.020044999 0.825378 0
-0.056515999 -0.063088 0.81048 0
-0.057243001 -0.043556999 0.70409101 0
0.006629 -0.0058260001 0.74164897 0
-0.088894002 0.017814999 0.80136698 0
-0.069741003 -0.020974001 0.70154601 0
-0.071745001 -0.044934001 0.81927198 0
-0.018176001 -0.072368003 0.75109601 0
-0.104632 -0.029894 0.72743201 0
-0.064172 0.0054549999 0.705266 0
-0.105904 0.014692 0.77466601 0
-0.082001001 -0.066499002 0.73130298 0
-0.050097 0.023433 0.71541798 0
-0.094945997 -0.065828003 0.77637303 0
-0.068219997 -0.074359 0.79281199 0
-0.112437 0.003735 0.76621097 0
0.011062 -0.010978 0.77034402 0
-0.10763 -0.0084149996 0.79469901 0
-0.056958999 -0.081168003 0.746409 0
0.010893 -0.030703001 0.76611 0
-0.01426 0.032488 0.766267 0
-0.057094999 -0.006331 0.700634 0
-0.062233999 0.037384 0.79238302 0
0.0024929999 0.001026 0.790286 0
-0.0059739999 -0.020938 0.80805498 0
-0.037229002 0.042163 0.77518499 0
-0.033580001 -0.021659 0.701998 0
-0.108395 0.011791 0.75714099 0
-0.105104 -0.055112001 0.772484 0
-0.017145 0.033496 0.75282902 0
-0.072052002 -0.065903999 0.80328798 0
-0.1147 -0.028106 0.74998897 0
-0.051194999 -0.0096509997 0.82712799 0
-0.082450002 -0.018346 0.82040799 0
-0.00059200003 -0.051066998 0.74231201 0
-0.044976 -0.065581001 0.71941 0
-0.099542998 -0.061441999 0.75157499 0
-0.029376 -0.055209 0.71531498 0
-0.035700001 -0.073770002 0.79342502 0
-0.092932001 -0.045504998 0.72093898 0
-0.101721 -0.020698 0.80482203 0
0.0050320001 0.0060459999 0.74925703 0
-0.028184 0.0066979998 0.81717998 0
-0.02389 -0.028972 0.82038999 0
-0.085092001 -0.058867998 0.80231798 0
-0.079815999 0.035732999 0.744443 0
-0.067829996 -0.053242002 0.711052 0
-0.012366 0.002348 0.71798301 0
-0.015381 -0.068010002 0.78346401 0
-0.00118 -0.014377 0.724832 0
-0.092084996 -0.0061260001 0.71457601 0
-0.081400998 -0.076658003 0.76658303 0
-0.012145 0.028491 0.778988 0
-0.059797999 0.01365 0.81830102 0
-0.044987001 -0.055261999 0.81635499 0
-0.062355001 -0.037705 0.82436299 0
-0.032354001 -0.079568997 0.75316501 0
-0.095709004 0.0056099999 0.80408001 0
-0.050657999 0.0093470002 0.70588702 0
-0.0086340001 -0.051103 0.72864401 0
-0.083021998 -0.020259 0.70690399 0
-0.010827 0.015236 0.72853398 0
0.0097049996 -0.025040001 0.77941102 0
0.003297 -0.025018999 0.79525399 0
-0.00094900001 -0.057346001 0.77038199 0
-0.052065 0.045053001 0.76518202 0
-0.024458 0.03224 0.790093 0
-0.099082001 0.01452 0.73487198 0
-0.0046899999 -0.061482001 0.754215 0
-0.072489999 -0.079292998 0.75176603 0
-0.076435998 0.015304 0.81216502 0
-0.036750998 -0.063406996 0.807675 0
-0.040668 0.028496001 0.80499798 0
-0.058187999 0.033833001 0.72762501 0
-0.039836001 -0.022778001 0.82653099 0
-0.044259999 0.014751 0.81751901 0
-0.0069630002 -0.051656 0.79560697 0
-0.046888001 0.039586 0.73808199 0
0.007332 -0.029131999 0.741633 0
0.0073469998 0.0044249999 0.76685798 0
-0.080632001 -0.042606 0.71057701 0
-0.071111999 -0.079062 0.77829897 0
-0.030296 -0.068746999 0.72874999 0
-0.094756 -0.058036 0.73441201 0
-0.083879001 0.036789998 0.76093102 0
-0.015113 0.026722001 0.73828799 0
-0.051874999 -0.020809 0.69916099 0
-0.10348 -0.011633 0.72510898 0
-0.102772 0.012048 0.78845602 0
-0.107643 -0.051973999 0.75886899 0
-0.101099 -0.052636001 0.78915602 0
-0.069289997 0.041168001 0.77772301 0
-0.0045690001 0.00068900001 0.80166298 0
-0.024296001 0.037841 0.77296001 0
-0.042799 -0.080619998 0.78048998 0
-0.003244 -0.034274001 0.72474599 0
-0.065335996 -0.070889004 0.72728097 0
-0.086626999 0.024475001 0.73101503 0
-0.079770997 -0.031617001 0.82043201 0
-0.028531 0.010885 0.71190202 0
-0.068582997 -0.056023002 0.81380999 0
-0.11648 -0.016745999 0.75811899 0
-0.056843001 -0.022491001 0.827631 0
-0.037517 -0.035298999 0.70296597 0
-0.015938001 -0.014212 0.816302 0
-0.000635 0.012374 0.78497499 0
0.0039360002 -0.044016998 0.78241903 0
-0.076650001 0.030223999 0.79671103 0
-0.024057999 -0.046286002 0.81459701 0
-0.096000999 0.026131 0.75015599 0
0.01063 -0.013457 0.75182402 0
-0.041205 0.038368002 0.789832 0
-0.016457001 -0.017932 0.71012598 0
-0.109147 -0.026581001 0.79297 0
-0.016006 -0.065990999 0.73826402 0
-0.070533 -0.0087200003 0.70266098 0
-0.092132002 -0.0089269998 0.813061 0
-0.064694002 0.021610999 0.715352 0
-0.11399 -0.035831001 0.77214301 0
-0.059069999 -0.083245002 0.76619101 0
-0.049511001 -0.054802999 0.70990598 0
-0.021492001 -0.064805001 0.79690301 0
-0.094397001 -0.028997 0.71571302 0
-0.081529997 -0.055787001 0.719217 0
-0.058031 0.026125999 0.80876201 0
0.0082200002 -0.0082080001 0.78209502 0
-0.03647 0.028728999 0.72371101 0
-0.109612 0.0024029999 0.74355102 0
-0.082073003 -0.071246997 0.78720403 0
-0.030347999 0.040422998 0.75395203 0
-0.00062000001 0.0024959999 0.732081 0
-0.037246998 -0.0059819999 0.82462603 0
-0.092524 0.029018 0.77759898 0
-0.047010999 -0.042757001 0.82319099 0
-0.065442003 -0.032549001 0.70188898 0
-0.021135001 -0.075511999 0.76548803 0
-0.108493 -0.038034 0.73812902 0
0.0070270002 -0.042396002 0.75470102 0
-0.046309002 -0.077512003 0.73676097 0
-0.040284999 -0.0055840001 0.70179403 0
-0.093811996 -0.042176001 0.807127 0
-0.023258001 0.020919001 0.80445498 0
-0.062809996 0.042656999 0.74946702 0
-0.113365 -0.0045389999 0.77790701 0
-0.054230001 -0.070795 0.80205101 0
-0.0060390001 -0.034906998 0.80533201 0
-0.019137001 -0.044294 0.71440101 0
-0.086425997 0.0076799998 0.715994 0
-0.069449998 -0.002717 0.82331097 0
-0.086939 -0.071889997 0.75001299 0
-0.0032599999 0.021748999 0.756845 0
